-4.540990331238386e-13 1854.0 0
-398.17934723491874 2001.782757302993 0
-725.1851043318463 1905.7517141088879 0
-967.803345920147 1303.4200646310337 0
-1185.8180720498406 1502.8180720498399 0
-1398.5318878928815 1023.4691319389703 0
-1652.8204836626917 402.6206605011461 0
-1898.800302860654 250.6948634232244 0
-1728.0 -3.0174284503389937e-12 0
-1440.7735769123453 -353.587683041693 0
-1236.1508145001014 -592.0304325044908 0
-1026.0335015813407 -685.5736675461891 0
-848.528137423857 -1038.5281374238573 0
-678.351254516934 -1015.224396621408 0
-502.08066326299763 -1212.1299466548082 0
-290.87967012604736 -1762.3508530812167 0
2.1345593709138367e-13 -1943.0 0
393.3020891845153 -2077.2631252929127 0
2000.7694127533243 -3384.1707275888434 0
2368.9514735955836 -3845.3864268580533 0
3020.0530624477447 -3320.053062447744 0
3443.947134157143 -2001.171905167191 0
2458.443436012534 -1018.3206135235038 0
2095.9381442217036 -416.90801814846594 0
1865.0 1.141983140204907e-13 0
1559.4485958411365 310.19361200564407 0
1332.2342858812756 551.8295094704596 0
1147.4280649775123 766.6869215670512 0
969.4433970067568 969.4433970067568 0
795.0210034510507 1189.8330152049423 0
583.2095509243968 1407.992407547201 0
340.04243127411155 1709.5087437428306 0
-4.540990331238386e-13 1854.0 0

-10.874892567774697 1860.9246896370153 1000
-400.0387173823381 1996.6713527996792 1000
-750.309882767682 1755.3468487445784 1000
-958.500462040443 1448.0538045367591 1000
-1299.6577361090312 1191.3655663618454 1000
-1391.9477860073077 925.5187751841387 1000
-1677.866103554713 691.8451391250154 1000
-1873.005483828648 367.90885802292615 1000
-1708.057022816175 -2.5664992372171613 1000
-1426.297643925012 -277.3128932748207 1000
-1271.167474902073 -504.0788374359226 1000
-979.9118780068405 -684.3736730921092 1000
-859.7494187201509 -847.3241438023626 1000
-688.5596947949718 -1008.4732549163197 1000
-540.1614664300915 -1216.8408856524181 1000
-264.5849260698398 -1470.7016250416348 1000
41.079589827275655 -1800.231324235889 1000
345.8351021370426 -1967.442477331974 1000
1368.8304631491749 -3382.780469587729 1000
2376.84377737445 -3542.2672412890633 1000
3013.7830183101914 -3024.989348992885 1000
3462.283480192037 -2297.774896388792 1000
2413.659886216935 -1027.8813704163797 1000
2141.844875495775 -426.4686681391061 1000
1857.2356791081932 3.4456003097876544 1000
1541.290364009572 303.3078227227411 1000
1287.6238420204597 550.2855206775373 1000
1192.1011307303356 774.4439932271401 1000
918.4828600327625 967.325163765697 1000
746.1344699535194 1186.509697662782 1000
600.8530212840382 1398.4028213843005 1000
329.3866563485693 1709.0012412642452 1000
38.15401052874445 1861.4794226138106 1000

0.0 1566.0 2000
-394.6677214386284 1984.1286222557349 2000
-787.562503807356 1901.3440779082277 2000
-1035.5829143485385 1549.8593573319442 2000
-1240.2652942012046 1240.2652942012041 2000
-1436.7794900587985 960.0253626578719 2000
-1622.3324590898194 671.9921072330981 2000
-1824.2606215500086 362.86799894999865 2000
-1954.0 -3.589439768300892e-13 2000
-1632.0267065909752 -324.6302958348381 2000
-1293.431345515801 -535.7568053111265 2000
-1069.2699214210731 -714.4633196632084 2000
-849.94235098623 -849.9423509862303 2000
-650.0171726329343 -972.8194463939782 2000
-458.07206854101236 -1105.8838004160104 2000
-230.59676062306372 -1159.2882014366185 2000
9.944132009076508e-14 -812.0 2000
116.66401256564491 -586.5095976811318 2000
192.48976647964022 -464.7114048531772 2000
249.45103462580138 -373.32985592384284 2000
301.9345955666558 -301.9345955666558 2000
345.89135871785885 -231.11721693615442 2000
394.49656038231944 -163.4058256198933 2000
450.1804437050828 -89.54645780540284 2000
530.0 3.245314017740486e-14 2000
609.0676591304061 121.1510899720157 2000
845.3497722478273 350.1553406140572 2000
1177.3609710204041 786.6874499557568 2000
990.6566004423531 990.6566004423531 2000
756.1310871396786 1131.630142343764 2000
530.3992372580144 1280.4970320606435 2000
283.2711475674182 1424.1002271454906 2000
0.0 1566.0 2000

-5.106777152444463e-13 2085.0 3000
-368.5256182884672 1852.703394681702 3000
-662.8077048563366 1600.1593503095482 3000
-936.1358426380297 1401.0262967297888 3000
-1211.9810229537427 1211.9810229537422 3000
-1512.4432247783302 1010.5822538626558 3000
-1777.5442205517154 736.2829238704331 3000
-1596.7184364964592 317.6070442422569 3000
-1408.0 -2.58645403979921e-13 3000
-1267.1745822809735 -252.05669604483825 3000
-1114.1987162086116 -461.51621943229895 3000
-982.7970817416085 -656.6840154291698 3000
-845.6997102991107 -845.6997102991111 3000
-612.2383967876013 -916.2795127574051 3000
-304.2333287302463 -734.4842283464731 3000
-116.66401256564475 -586.5095976811318 3000
6.270191611634448e-14 -512.0 3000
90.7169997374998 -456.06515538750216 3000
164.55387591698866 -397.2681989798533 3000
230.0060764701153 -344.2284194932538 3000
292.7422074112307 -292.74220741123065 3000
360.8578117393047 -241.11748113050726 3000
438.8427779428612 -181.7746303734176 3000
521.7777691745185 -103.7880513125802 3000
657.0 4.022964735199055e-14 3000
919.9765930182301 182.99472205112838 3000
1296.2029841133353 536.904855608221 3000
1173.2036229588914 783.9095987906588 3000
999.1418818165918 999.1418818165918 3000
813.3548211406976 1217.2715124109263 3000
622.243261025636 1502.2281198633523 3000
344.5295086804825 1732.066805192105 3000
-5.106777152444463e-13 2085.0 3000

0.0 1611.0 4000
-366.57471506830586 1842.8955418776698 4000
-815.4983943700076 1968.7872837815517 4000
-1077.2506818250085 1612.2195782546353 4000
-1305.319118070367 1305.3191180703664 4000
-1495.8138325322793 999.4708492022637 4000
-1695.318942158211 702.2240983899402 4000
-1888.0116647762186 375.548869881047 4000
-1970.0 -3.6188312914804284e-13 4000
-1537.8713196722651 -305.90162492128974 4000
-1293.431345515801 -535.7568053111265 4000
-1050.9775899504173 -702.2407745367772 4000
-837.2144289248722 -837.2144289248724 4000
-645.5726107687775 -966.1676894955579 4000
-450.41839989371056 -1087.4062097657845 4000
-177.33710271266068 -891.5338198865364 4000
7.249909050952331e-14 -592.0 4000
90.32681909346755 -454.1035848266957 4000
153.07337294603596 -369.5518130045147 4000
202.7831350521548 -303.486408490429 4000
254.55844122715712 -254.5584412271571 4000
292.677303530496 -195.56072202289988 4000
334.44439076908577 -138.53140251616247 4000
382.50625935725986 -76.08522558629 4000
425.0 2.6023744481881257e-14 4000
485.48871379959905 96.56970939798353 4000
614.3798891200057 254.48448252278473 4000
783.2443747889976 523.3471595044654 4000
992.0708140047262 992.0708140047262 4000
776.6871857614038 1162.3945179989582 4000
540.3490064995068 1304.517899905937 4000
289.70912819395045 1456.4661413987972 4000
0.0 1611.0 4000

-5.194951721983073e-13 2121.0 5000
-405.5927794715316 2039.0525979583158 5000
-727.4812049260369 1756.2949913039556 5000
-1021.6936585230484 1529.0726170243806 5000
-1308.1475451951133 1308.1475451951126 5000
-1639.6580754606196 1095.584499514655 5000
-1923.5171866884987 796.7469061841174 5000
-1707.5471731820242 339.6522506300794 5000
-1454.0 -2.6709546689403774e-13 5000
-1280.905576206619 -254.78796055306404 5000
-1128.980788728792 -467.6391543501404 5000
-972.819446393978 -650.0171726329346 5000
-830.8504678941932 -830.8504678941936 5000
-591.6822981658761 -885.5151371022109 5000
-238.41177836345088 -575.5769487545317 5000
-100.4715158383061 -505.10441940766367 5000
5.437431788214248e-14 -444.0 5000
74.71959333217725 -375.6407623944373 5000
137.76603565143236 -332.5966317040632 5000
187.78273876062553 -281.0367289582603 5000
240.41630560342617 -240.41630560342614 5000
294.34024275510103 -196.6718624889391 5000
357.54137908186794 -148.09848832528974 5000
426.64159697540526 -84.86429007701577 5000
509.0 3.116726103830014e-14 5000
663.991634832987 132.07614800491888 5000
1205.6627899272291 499.40187923644226 5000
1167.3833356727735 780.0206071595217 5000
999.1418818165918 999.1418818165918 5000
810.5769699755996 1213.1141643494134 5000
609.2320243252229 1470.8162157579684 5000
345.89514093459536 1738.9323021549276 5000
-5.194951721983073e-13 2121.0 5000

0.0 1578.0 6000
-372.81760537282196 1874.2806708505732 6000
-839.6074506090083 2026.9916943297626 6000
-1136.696696758106 1701.1868267710076 6000
-1332.8962825366423 1332.8962825366418 6000
-1517.4320424521454 1013.9156752607734 6000
-1710.1010146783915 708.3470333077815 6000
-1919.396793749122 381.7917601855631 6000
-1988.0 -3.651896755057407e-13 6000
-1631.045921310572 -324.435205512822 6000
-1301.7462613084026 -539.2009562024123 6000
-1040.168484990484 -695.0183615075223 6000
-837.9215357060588 -837.921535706059 6000
-636.6834870404639 -952.8641756987171 6000
-445.44351527296436 -1075.395775843138 6000
-170.7040317641123 -858.1871203528266 6000
6.711064459327495e-14 -548.0 6000
86.42501265314498 -434.48787921863106 6000
142.35823683981343 -343.6831860941987 6000
184.4493173625079 -276.04791128444504 6000
223.44574285494903 -223.445742854949 6000
255.26117097688143 -170.5600615370178 6000
281.78325741594244 -116.71844687135237 6000
312.8705044486305 -62.233812723144894 6000
358.0 2.1921177704737623e-14 6000
421.7376705733891 83.88883846693518 6000
467.4830434507111 193.63781677673546 6000
603.6469385316478 403.34398917223126 6000
941.1591257592949 941.1591257592949 6000
783.354028557639 1172.3721533465887 6000
539.5836396347765 1302.6701408409142 6000
284.441689499515 1429.98493882791 6000
0.0 1578.0 6000

-5.341909337880755e-13 2181.0 7000
-396.42353433677357 1992.955689779364 7000
-725.1851043318463 1750.7517141088879 7000
-1008.3599729305779 1509.1173463291195 7000
-1281.2774875100245 1281.2774875100238 7000
-1549.8593573319447 1035.5829143485378 7000
-1838.5202696974604 761.5400304065291 7000
-1581.0258720100076 314.4855990899988 7000
-1389.0 -2.55155160602351e-13 7000
-1223.0392446628282 -243.27763155411245 7000
-1087.4062097657843 -450.41839989371135 7000
-951.2012364741117 -635.5723465744248 7000
-820.243866176395 -820.2438661763953 7000
-635.5723465744246 -951.201236474112 7000
-280.8896393559758 -678.1275768632845 7000
-108.66530936298349 -546.2974011845994 7000
5.878304635907296e-14 -480.0 7000
80.18212234862885 -403.1027502457277 7000
143.8889705692738 -347.3787042242438 7000
201.116424353096 -300.9919996535214 7000
256.6797615707168 -256.6797615707167 7000
322.6102095733876 -215.56125041160556 7000
386.18164458971785 -159.9616747286075 7000
480.5847873975829 -95.59425778790282 7000
595.0 3.643324227463376e-14 7000
778.7435126401649 154.9017156808059 7000
1306.3656589709594 541.114373364237 7000
1193.990363266455 797.7988546161489 7000
1020.3550852521881 1020.3550852521881 7000
833.3553495294033 1247.2044184538179 7000
611.9108083517785 1477.2833724855475 7000
357.01528928951467 1794.8370631379116 7000
-5.341909337880755e-13 2181.0 7000

